# .PCD v0.7 - Point Cloud Data file format
VERSION 0.7
FIELDS x y z
SIZE 4 4 4
TYPE F F F
COUNT 1 1 1
WIDTH 1628
HEIGHT 1
VIEWPOINT 0 0 0 1 0 0 0
POINTS 1628
DATA ascii
-4.8070002 -0.433 -0.95200002
-4.8039999 -0.41800001 -0.95099998
-5.8530002 0.24699999 -0.958
-4.6129999 0.46799999 -0.95099998
-4.6090002 0.48199999 -0.95099998
-5.7859998 0.61900002 -0.95099998
-5.8239999 0.63200003 -0.958
-4.783 0.67199999 -0.95300001
-4.9770002 0.69099998 -0.95499998
-4.9679999 0.69800001 -0.95300001
-4.9559999 0.71200001 -0.95099998
-4.9790001 0.73100001 -0.95700002
-4.9650002 0.745 -0.954
-4.9679999 0.76099998 -0.95499998
-5.2059999 0.88800001 -0.95999998
-6.3439999 0.68000001 -0.77999997
-6.3249998 0.69800001 -0.77700001
-6.3239999 0.71799999 -0.77700001
-5.2709999 0.76700002 -0.773
-5.0250001 0.76800001 -0.77700001
-5.3060002 0.79799998 -0.77999997
-5.6059999 -0.37900001 -0.597
-5.5799999 -0.36000001 -0.59299999
-5.5840001 -0.237 -0.59299999
-4.9749999 -0.50300002 -0.94999999
-4.9590001 -0.486 -0.94599998
-4.961 -0.47 -0.94599998
-4.954 -0.46200001 -0.94400001
-4.961 -0.447 -0.94599998
-4.9569998 -0.43099999 -0.94400001
-4.948 -0.414 -0.94199997
-4.7930002 -0.40900001 -0.949
-4.9499998 -0.39899999 -0.94199997
-4.7979999 -0.39399999 -0.94999999
-4.9489999 -0.38299999 -0.94199997
-4.79 -0.37900001 -0.94700003
-4.7950001 -0.36399999 -0.94800001
-4.7690001 -0.347 -0.94199997
-4.7649999 -0.30899999 -0.94099998
-4.6149998 -0.273 -0.94800001
-4.605 -0.27900001 -0.94599998
-4.6160002 -0.244 -0.94800001
-4.6209998 -0.23 -0.949
-4.6220002 -0.215 -0.949
-4.6110001 -0.2 -0.94599998
-4.619 -0.186 -0.94800001
-4.6209998 -0.17900001 -0.94800001
-4.6079998 -0.164 -0.94499999
-4.6110001 -0.149 -0.94599998
-4.6129999 -0.13500001 -0.94599998
-4.5999999 -0.12 -0.94300002
-4.6079998 -0.106 -0.94499999
-4.6139998 -0.090999998 -0.94599998
-4.6030002 -0.083999999 -0.94300002
-4.6160002 -0.07 -0.94599998
-4.6090002 -0.055 -0.94499999
-4.6069999 -0.039999999 -0.94400001
-4.6090002 -0.026000001 -0.94499999
-4.6009998 -0.011 -0.94300002
-4.6009998 0.003 -0.94300002
-4.605 0.0099999998 -0.94400001
-4.6069999 0.025 -0.94400001
-4.605 0.039000001 -0.94400001
-4.605 0.054000001 -0.94400001
-4.6110001 0.068000004 -0.94499999
-4.605 0.082999997 -0.94400001
-4.6079998 0.097000003 -0.94499999
-4.6040001 0.104 -0.94400001
-4.6020002 0.119 -0.94300002
-4.6069999 0.133 -0.94499999
-4.6009998 0.148 -0.94300002
-4.6040001 0.162 -0.94400001
-4.5900002 0.176 -0.94099998
-4.5935001 0.1945 -0.94199997
-4.6059999 0.213 -0.94499999
-4.6079998 0.228 -0.94599998
-4.6110001 0.242 -0.94599998
-4.6059999 0.25600001 -0.94599998
-5.7719998 0.26100001 -0.94300002
-5.7610002 0.27900001 -0.94099998
-4.605 0.27450001 -0.94550002
-5.763 0.28799999 -0.94199997
-4.6160002 0.29300001 -0.94800001
-5.7639999 0.30599999 -0.94199997
-4.6009998 0.30700001 -0.94499999
-4.6059999 0.322 -0.94599998
-4.599 0.336 -0.94499999
-4.6040001 0.35100001 -0.94599998
-5.7550001 0.36000001 -0.94099998
-4.6009998 0.36500001 -0.94599998
-4.5999999 0.37200001 -0.94599998
-4.605 0.38699999 -0.94700003
-4.605 0.40200001 -0.94800001
-4.6100001 0.417 -0.949
-4.6030002 0.43099999 -0.94800001
-4.6110001 0.44600001 -0.94999999
-4.6059999 0.46000001 -0.949
-4.7519999 0.47 -0.94099998
-4.6040001 0.49700001 -0.94999999
-4.7490001 0.5 -0.94099998
-4.7789998 0.51099998 -0.94800001
-4.6040001 0.51099998 -0.94999999
-4.7490001 0.53799999 -0.94199997
-5.7620001 0.54299998 -0.94499999
-4.9390001 0.55199999 -0.94300002
-4.7589998 0.55400002 -0.94400001
-4.763 0.56999999 -0.94599998
-4.7670002 0.58499998 -0.94700003
-4.9419999 0.59200001 -0.94499999
-4.9359999 0.60699999 -0.94400001
-4.7645001 0.60399997 -0.94700003
-4.9359999 0.62199998 -0.94400001
-4.7579999 0.62199998 -0.94599998
-4.948 0.63999999 -0.94700003
-4.7740002 0.63999999 -0.94999999
-4.9299998 0.653 -0.94400001
-4.7620001 0.653 -0.94800001
-5.9819999 0.66100001 -0.94300002
-4.9439998 0.671 -0.94700003
-5.9759998 0.68000001 -0.94199997
-5.112 0.91299999 -0.94199997
-5.1479998 0.93599999 -0.94999999
-5.131 0.94999999 -0.94700003
-5.1069999 0.96200001 -0.94300002
-5.1399999 0.98500001 -0.94999999
-5.1220002 0.98900002 -0.94700003
-3.461 -4.4310002 -0.76700002
-3.461 -4.4029999 -0.764
-3.4719999 -4.388 -0.76300001
-3.48 -4.3699999 -0.76200002
-3.6259999 -4.2709999 -0.764
-3.507 -3.977 -0.76899999
-3.5209999 -3.9679999 -0.76899999
-3.5079999 -3.9289999 -0.76300001
-2.4289999 -3.8929999 -0.764
-2.4760001 -3.845 -0.76099998
-3.5050001 -3.6210001 -0.76899999
-3.487 -3.625 -0.76800001
-3.5 -3.5929999 -0.76499999
-3.5 -3.5710001 -0.76200002
-3.523 -3.5380001 -0.76099998
-3.3039999 -3.483 -0.76200002
-1.7130001 -3.454 -0.76999998
-1.701 -3.457 -0.76999998
-1.688 -3.457 -0.76800001
-3.668 -3.448 -0.76800001
-3.6429999 -3.4460001 -0.76499999
-3.622 -3.448 -0.76200002
-1.7410001 -3.4419999 -0.76999998
-1.72 -3.441 -0.76800001
-1.749 -3.431 -0.76899999
-2.701 -3.4059999 -0.76800001
-2.6559999 -3.3929999 -0.76099998
-2.6689999 -3.388 -0.76099998
-2.4119999 -3.802 -0.58899999
-2.4189999 -3.7880001 -0.588
-2.4430001 -3.773 -0.588
-2.431 -3.78 -0.588
-2.4790001 -3.7490001 -0.588
-2.4579999 -3.744 -0.58600003
-2.4400001 -3.7420001 -0.58399999
-2.5469999 -3.7130001 -0.58899999
-3.6760001 -3.569 -0.58700001
-3.635 -3.552 -0.58099997
-1.977 -3.473 -0.58399999
-1.965 -3.477 -0.58399999
-1.952 -3.48 -0.583
-3.184 -3.7479999 -0.405
-3.2409999 -3.7309999 -0.40799999
-3.187 -3.7279999 -0.403
-3.2679999 -3.7149999 -0.40799999
-3.21 -3.7190001 -0.40400001
-2.1689999 -3.7060001 -0.41
-3.3139999 -3.6960001 -0.41
-3.2679999 -3.6919999 -0.40599999
-2.138 -3.694 -0.40599999
-3.3110001 -3.6819999 -0.40900001
-3.286 -3.6889999 -0.40700001
-2.233 -3.668 -0.41
-2.3529999 -3.5940001 -0.41
-3.414 -4.3850002 -0.75700003
-3.477 -4.3379998 -0.75700003
-3.4809999 -4.3150001 -0.755
-3.4860001 -4.2930002 -0.75300002
-3.4979999 -3.9059999 -0.759
-3.497 -3.8800001 -0.75599998
-3.5050001 -3.865 -0.755
-2.4219999 -3.8529999 -0.75700003
-2.431 -3.8410001 -0.75599998
-3.503 -3.8380001 -0.75099999
-2.447 -3.8399999 -0.75700003
-2.447 -3.826 -0.755
-2.4660001 -3.802 -0.75300002
-2.5680001 -3.763 -0.75800002
-2.586 -3.7379999 -0.75599998
-2.5680001 -3.7379999 -0.75400001
-2.592 -3.71 -0.75199997
-1.8049999 -3.691 -0.75800002
-3.494 -3.553 -0.759
-3.5039999 -3.54 -0.759
-3.5220001 -3.5139999 -0.75800002
-3.513 -3.483 -0.75300002
-3.5469999 -3.4630001 -0.755
-3.562 -3.4560001 -0.75599998
-1.86 -3.46 -0.75199997
-3.6010001 -3.45 -0.75999999
-3.562 -3.4330001 -0.75300002
-2.595 -3.4360001 -0.75999999
-2.641 -3.395 -0.759
-2.622 -3.3929999 -0.75599998
-2.596 -3.3929999 -0.75300002
-2.595 -3.381 -0.75099999
-2.6459999 -3.5599999 -0.579
-3.612 -3.5409999 -0.57700002
-3.5869999 -3.539 -0.574
-1.822 -3.5009999 -0.57499999
-1.8660001 -3.4909999 -0.57700002
-2.7 -3.4820001 -0.574
-1.892 -3.4860001 -0.579
-1.847 -3.4809999 -0.574
-2.678 -3.4760001 -0.57099998
-1.92 -3.473 -0.579
-1.906 -3.4719999 -0.57800001
-1.899 -3.474 -0.57700002
-1.932 -3.4690001 -0.57999998
-3.1370001 -3.7160001 -0.398
-3.1860001 -3.7030001 -0.40000001
-3.425 -4.1719999 -0.921
-3.414 -3.7950001 -0.92400002
-3.45 -3.451 -0.92400002
-3.8 -3.388 -0.921
-3.4760001 -4.2670002 -0.74800003
-3.49 -4.256 -0.74800003
-3.5 -4.2420001 -0.74800003
-3.5320001 -4.2259998 -0.74900001
-3.506 -4.2220001 -0.74599999
-3.5639999 -4.21 -0.75
-3.539 -4.2080002 -0.74800003
-3.5050001 -3.8169999 -0.74900001
-3.5079999 -3.796 -0.74599999
-3.5139999 -3.779 -0.745
-2.464 -3.773 -0.74800003
-3.5109999 -3.763 -0.74299997
-2.5079999 -3.7509999 -0.74900001
-2.483 -3.7509999 -0.74599999
-2.47 -3.757 -0.74599999
-2.5339999 -3.7379999 -0.75
-2.513 -3.733 -0.74699998
-2.49 -3.737 -0.745
-2.575 -3.698 -0.74800003
-1.725 -3.4809999 -0.74199998
-1.749 -3.474 -0.74299997
-1.735 -3.4719999 -0.74199998
-1.77 -3.461 -0.74299997
-1.76 -3.4679999 -0.74299997
-3.506 -3.454 -0.74800003
-1.774 -3.4560001 -0.74199998
-1.813 -3.45 -0.745
-1.826 -3.4230001 -0.741
-1.816 -3.4300001 -0.74199998
-1.642 -3.3889999 -0.74900001
-3.5220001 -3.5420001 -0.56800002
-3.503 -3.5439999 -0.56599998
-3.4719999 -3.5469999 -0.56300002
-3.543 -3.54 -0.56999999
-3.4860001 -3.5380001 -0.56300002
-3.552 -3.526 -0.56900001
-2.6240001 -3.4949999 -0.56800002
-2.615 -3.494 -0.56699997
-2.648 -3.4820001 -0.56900001
-2.664 -3.48 -0.56999999
-2.6259999 -3.4760001 -0.56599998
-1.825 -3.4660001 -0.56999999
-3.428 -4.1490002 -0.91799998
-3.4330001 -4.1269999 -0.91500002
-3.402 -3.7690001 -0.91799998
-3.4070001 -3.7509999 -0.91600001
-3.411 -3.7320001 -0.91399997
-3.424 -3.723 -0.91399997
-3.425 -3.448 -0.92000002
-3.4130001 -3.4460001 -0.91799998
-3.3940001 -3.448 -0.91500002
-3.3699999 -3.4449999 -0.91100001
-2.878 -3.4189999 -0.912
-3.204 -3.405 -0.91900003
-3.1800001 -3.401 -0.91399997
-3.154 -3.404 -0.91100001
-2.902 -3.4030001 -0.91299999
-2.8889999 -3.4089999 -0.912
-3.164 -3.395 -0.91100001
-3.77 -3.3829999 -0.91600001
-3.7490001 -3.3859999 -0.91299999
-3.207 -3.3870001 -0.91600001
-3.22 -3.3789999 -0.917
-2.6760001 -3.8329999 -0.73900002
-2.6900001 -3.826 -0.74000001
-2.655 -3.8139999 -0.73400003
-2.678 -3.7839999 -0.73199999
-3.487 -3.7149999 -0.73400003
-3.5220001 -3.6819999 -0.73400003
-3.5339999 -3.671 -0.73400003
-3.552 -3.6670001 -0.736
-1.733 -3.5999999 -0.73400003
-1.739 -3.582 -0.73100001
-3.345 -3.543 -0.74000001
-2.7119999 -3.4920001 -0.73199999
-2.724 -3.4860001 -0.73199999
-3.7160001 -3.48 -0.73299998
-1.791 -3.4349999 -0.74000001
-1.777 -3.4349999 -0.73900002
-1.916 -3.5369999 -0.55299997
-1.903 -3.54 -0.55199999
-2.036 -3.5039999 -0.55800003
-2.0209999 -3.503 -0.55699998
-1.994 -3.507 -0.55500001
-1.977 -3.503 -0.55299997
-1.956 -3.506 -0.55199999
-1.943 -3.5079999 -0.551
-2.003 -3.4979999 -0.55400002
-1.814 -3.365 -0.55299997
-3.4560001 -4.3470001 -0.90200001
-3.428 -4.0949998 -0.91000003
-3.428 -4.0689998 -0.90600002
-3.4319999 -4.0479999 -0.903
-3.4389999 -4.0300002 -0.90100002
-2.6570001 -3.76 -0.903
-2.4349999 -3.7 -0.903
-3.4100001 -3.6849999 -0.90700001
-3.4170001 -3.6700001 -0.90499997
-3.4159999 -3.645 -0.90100002
-2.5139999 -3.6429999 -0.90200001
-2.5280001 -3.638 -0.903
-2.652 -3.585 -0.91000003
-2.6329999 -3.582 -0.90700001
-2.6210001 -3.589 -0.90600002
-2.5999999 -3.5840001 -0.903
-2.6589999 -3.5699999 -0.90799999
-2.997 -3.5350001 -0.91000003
-3.336 -3.4530001 -0.90700001
-3.3139999 -3.4530001 -0.90399998
-3.2980001 -3.457 -0.90200001
-3.3510001 -3.447 -0.90799999
-2.835 -3.421 -0.90600002
-2.8169999 -3.421 -0.90399998
-2.803 -3.4260001 -0.90200001
-2.849 -3.415 -0.90700001
-2.8540001 -3.401 -0.90499997
-2.619 -3.4089999 -0.90799999
-2.5969999 -3.4030001 -0.90399998
-2.2620001 -3.4100001 -0.90200001
-3.1300001 -3.4000001 -0.90600002
-3.1040001 -3.3940001 -0.90200001
-3.7149999 -3.3770001 -0.90700001
-3.698 -3.372 -0.903
-2.3729999 -3.346 -0.90399998
-2.3440001 -3.349 -0.90100002
-2.382 -3.335 -0.903
-2.6029999 -3.766 -0.72100002
-3.4779999 -3.6589999 -0.72600001
-1.762 -3.5450001 -0.72600001
-1.748 -3.5450001 -0.72500002
-1.767 -3.527 -0.72299999
-1.8710001 -3.5109999 -0.73000002
-1.852 -3.503 -0.727
-1.79 -3.5039999 -0.72100002
-3.293 -3.4979999 -0.727
-2.6849999 -3.4809999 -0.727
-1.823 -3.4849999 -0.72100002
-3.6849999 -3.473 -0.72899997
-3.6600001 -3.471 -0.72500002
-2.6570001 -3.4660001 -0.72100002
-2.7190001 -3.457 -0.727
-3.4170001 -3.345 -0.72399998
-1.916 -3.5120001 -0.54900002
-1.925 -3.5009999 -0.54799998
-1.9579999 -3.4960001 -0.55000001
-3.4590001 -4.322 -0.898
-3.461 -4.2979999 -0.89499998
-3.471 -4.2820001 -0.89399999
-3.4330001 -4.0110002 -0.898
-3.45 -4.0050001 -0.89899999
-3.46 -3.9649999 -0.89399999
-3.4419999 -3.97 -0.89300001
-3.4690001 -3.951 -0.89399999
-2.4170001 -3.881 -0.89600003
-2.4289999 -3.8740001 -0.89600003
-2.4330001 -3.8529999 -0.89200002
-2.6619999 -3.7420001 -0.89999998
-2.6619999 -3.7179999 -0.89600003
-2.4330001 -3.684 -0.89999998
-2.4430001 -3.674 -0.89899999
-2.4519999 -3.6619999 -0.898
-2.477 -3.6489999 -0.89899999
-2.4579999 -3.6459999 -0.89499998
-2.4879999 -3.6300001 -0.89600003
-2.48 -3.6300001 -0.89499998
-3.4100001 -3.6040001 -0.89399999
-3.3889999 -3.605 -0.89200002
-3.2049999 -3.533 -0.89999998
-3.2260001 -3.5009999 -0.898
-3.2160001 -3.5009999 -0.89700001
-3.188 -3.493 -0.89200002
-3.24 -3.4719999 -0.89600003
-3.22 -3.4719999 -0.89300001
-3.2720001 -3.4630001 -0.89899999
-3.253 -3.464 -0.89700001
-3.2780001 -3.447 -0.89700001
-2.7190001 -3.4430001 -0.89300001
-2.701 -3.4419999 -0.89099997
-2.4960001 -3.447 -0.898
-2.9949999 -3.434 -0.89200002
-2.77 -3.4400001 -0.89999998
-2.7820001 -3.4219999 -0.89899999
-2.743 -3.4289999 -0.89399999
-2.723 -3.425 -0.89099997
-2.4949999 -3.4230001 -0.89300001
-3.062 -3.4119999 -0.898
-3.036 -3.4159999 -0.89499998
-2.7679999 -3.4159999 -0.89499998
-2.4949999 -3.411 -0.89099997
-2.556 -3.405 -0.898
-3.0829999 -3.392 -0.898
-3.066 -3.395 -0.89600003
-3.039 -3.398 -0.89300001
-2.5650001 -3.3929999 -0.89700001
-2.529 -3.391 -0.89200002
-2.569 -3.388 -0.89700001
-2.2520001 -3.3840001 -0.89499998
-3.677 -3.3740001 -0.89999998
-3.651 -3.3710001 -0.89600003
-2.2639999 -3.3789999 -0.89499998
-3.6259999 -3.3699999 -0.89200002
-2.299 -3.362 -0.89700001
-1.9910001 -3.3640001 -0.89600003
-1.987 -3.369 -0.89700001
-2.326 -3.3570001 -0.89999998
-2.3080001 -3.3529999 -0.89600003
-2.2639999 -3.355 -0.89099997
-2.3280001 -3.349 -0.898
-2.4030001 -3.8800001 -0.71899998
-2.4230001 -3.8310001 -0.713
-2.4089999 -3.835 -0.71200001
-2.3940001 -3.8399999 -0.71200001
-2.4530001 -3.812 -0.713
-2.441 -3.8199999 -0.713
-2.4820001 -3.8050001 -0.71499997
-2.4590001 -3.796 -0.71100003
-2.582 -3.7609999 -0.71799999
-2.5680001 -3.766 -0.71799999
-2.6389999 -3.7049999 -0.71600002
-2.6819999 -3.6789999 -0.71700001
-2.723 -3.6630001 -0.71899998
-2.6860001 -3.661 -0.71399999
-2.698 -3.6530001 -0.71399999
-2.7190001 -3.6340001 -0.71399999
-3.5309999 -3.5220001 -0.71600002
-1.7744999 -3.507 -0.72000003
-3.546 -3.4820001 -0.713
-1.793 -3.4809999 -0.71700001
-1.831 -3.474 -0.71899998
-1.802 -3.4719999 -0.71600002
-3.6159999 -3.4619999 -0.71899998
-3.6010001 -3.47 -0.71799999
-2.638 -3.4630001 -0.71799999
-2.6229999 -3.467 -0.71700001
-2.6110001 -3.461 -0.71499997
-3.566 -3.4579999 -0.71200001
-3.6129999 -3.4489999 -0.71700001
-2.4820001 -3.267 -0.71799999
-3.5739999 -3.5320001 -0.53600001
-3.54 -3.5309999 -0.53200001
-3.471 -4.2550001 -0.88999999
-3.4579999 -4.2119999 -0.88200003
-3.47 -3.927 -0.88999999
-3.471 -3.9030001 -0.88700002
-3.473 -3.8929999 -0.88599998
-2.4349999 -3.829 -0.88800001
-2.4349999 -3.803 -0.88300002
-2.6589999 -3.6889999 -0.88999999
-1.298 -3.6389999 -0.884
-1.345 -3.6259999 -0.88499999
-1.33 -3.6210001 -0.88300002
-1.347 -3.6129999 -0.88200003
-1.381 -3.602 -0.88300002
-1.439 -3.598 -0.88700002
-1.472 -3.582 -0.88700002
-1.448 -3.5899999 -0.88599998
-1.414 -3.585 -0.88200003
-1.457 -3.5799999 -0.88499999
-3.4070001 -3.5339999 -0.884
-2.6619999 -3.448 -0.88599998
-2.6459999 -3.448 -0.884
-2.928 -3.4330001 -0.88200003
-2.6789999 -3.4349999 -0.88599998
-2.668 -3.4330001 -0.884
-2.9489999 -3.425 -0.884
-2.9400001 -3.425 -0.88300002
-2.997 -3.414 -0.889
-3.0090001 -3.4059999 -0.88999999
-2.9549999 -3.4100001 -0.88200003
-2.5039999 -3.402 -0.88999999
-2.5150001 -3.3940001 -0.88999999
-3.6099999 -3.3759999 -0.88999999
-3.5639999 -3.375 -0.884
-3.552 -3.3740001 -0.88200003
-3.5799999 -3.3699999 -0.88499999
-2.665 -3.8440001 -0.70499998
-2.6689999 -3.825 -0.70300001
-2.427 -3.812 -0.70999998
-2.477 -3.7709999 -0.70899999
-2.5309999 -3.737 -0.70899999
-2.4890001 -3.7390001 -0.70499998
-2.473 -3.74 -0.704
-2.5050001 -3.724 -0.70499998
-2.487 -3.723 -0.70300001
-2.631 -3.6329999 -0.704
-2.6129999 -3.622 -0.70099998
-3.5 -3.48 -0.70700002
-3.5090001 -3.4679999 -0.70700002
-3.5450001 -3.4590001 -0.70999998
-3.4219999 -3.5450001 -0.52200001
-3.4560001 -3.5339999 -0.52399999
-3.51 -3.523 -0.528
-2.0840001 -3.5209999 -0.52399999
-3.536 -3.516 -0.52999997
-3.457 -3.5139999 -0.52200001
-3.4719999 -3.507 -0.523
-3.4560001 -4.1960001 -0.88
-3.454 -4.1669998 -0.875
-3.464 -3.859 -0.88
-3.4749999 -3.846 -0.87900001
-2.6670001 -3.832 -0.87900001
-3.4809999 -3.8280001 -0.87699997
-2.6819999 -3.8280001 -0.88
-2.6900001 -3.813 -0.87800002
-3.4809999 -3.8039999 -0.87400001
-2.691 -3.79 -0.87400001
-2.4389999 -3.7839999 -0.88
-2.437 -3.767 -0.87599999
-2.585 -3.6719999 -0.87699997
-2.642 -3.6429999 -0.88
-2.6329999 -3.6059999 -0.87199998
-1.355 -3.6010001 -0.88
-1.411 -3.563 -0.87599999
-3.3800001 -3.529 -0.87900001
-3.401 -3.507 -0.87900001
-3.398 -3.4820001 -0.875
-3.4000001 -3.473 -0.87400001
-2.609 -3.444 -0.87800002
-2.5780001 -3.448 -0.87400001
-3.4960001 -3.385 -0.875
-3.5050001 -3.372 -0.87400001
-3.5209999 -3.3670001 -0.87599999
-2.671 -3.802 -0.699
-2.675 -3.7820001 -0.69700003
-2.6070001 -3.786 -0.69099998
-2.6730001 -3.7539999 -0.69300002
-2.6010001 -3.628 -0.69999999
-2.7620001 -3.5050001 -0.69999999
-2.73 -3.4749999 -0.69199997
-1.936 -3.5710001 -0.51899999
-3.424 -3.5239999 -0.51999998
-3.395 -3.527 -0.51700002
-1.927 -3.527 -0.51300001
-1.952 -3.52 -0.51300001
-2.0610001 -3.507 -0.51999998
-2.0190001 -3.4979999 -0.51599997
-1.96 -3.497 -0.51099998
-2.0339999 -3.4860001 -0.51499999
-2.027 -3.4860001 -0.51499999
-1.998 -3.487 -0.51300001
-1.984 -3.4879999 -0.51200002
-1.97 -3.4890001 -0.51099998
-3.4460001 -4.381 -0.86400002
-3.4489999 -4.3559999 -0.861
-3.4430001 -4.1269999 -0.86900002
-3.45 -4.1110001 -0.86699998
-3.454 -4.0890002 -0.86500001
-3.454 -4.0640001 -0.861
-2.4000001 -3.9430001 -0.86699998
-3.48 -3.7780001 -0.87
-3.48 -3.767 -0.86900002
-2.688 -3.76 -0.86799997
-3.48 -3.743 -0.86500001
-2.687 -3.734 -0.86400002
-2.4300001 -3.7320001 -0.86900002
-2.6889999 -3.7249999 -0.86299998
-3.4760001 -3.7149999 -0.861
-2.4330001 -3.711 -0.866
-2.4400001 -3.6949999 -0.86299998
-2.5480001 -3.6429999 -0.86699998
-2.5239999 -3.6329999 -0.86299998
-2.6340001 -3.596 -0.87
-2.6440001 -3.586 -0.87
-2.6530001 -3.5739999 -0.86900002
-2.664 -3.566 -0.86900002
-3.767 -3.4630001 -0.866
-1.54 -3.467 -0.866
-3.7379999 -3.457 -0.861
-1.589 -3.4319999 -0.86299998
-3.375 -3.4260001 -0.86299998
-3.404 -3.391 -0.86199999
-3.3889999 -3.398 -0.861
-3.434 -3.3889999 -0.866
-3.4189999 -3.3840001 -0.86299998
-1.673 -3.3870001 -0.86199999
-3.4649999 -3.3770001 -0.86900002
-3.4460001 -3.3789999 -0.86699998
-1.707 -3.375 -0.86299998
-1.737 -3.368 -0.86500001
-1.728 -3.3640001 -0.86299998
-1.745 -3.358 -0.86400002
-2.5680001 -3.753 -0.68199998
-2.661 -3.724 -0.68699998
-2.6800001 -3.4790001 -0.68699998
-2.6570001 -3.4719999 -0.68300003
-2.6440001 -3.477 -0.68199998
-2.6989999 -3.4590001 -0.68599999
-2.6760001 -3.4519999 -0.68199998
-3.5039999 -3.552 -0.50800002
-3.438 -3.553 -0.50199997
-3.471 -3.5420001 -0.50400001
-3.4489999 -3.5420001 -0.50199997
-3.5190001 -3.5339999 -0.50800002
-3.51 -3.5369999 -0.50700003
-3.3529999 -3.5050001 -0.50999999
-1.931 -3.5079999 -0.50999999
-1.947 -3.4979999 -0.50999999
-3.4430001 -4.3200002 -0.85500002
-3.4560001 -4.309 -0.85500002
-3.4549999 -4.2930002 -0.85299999
-3.4560001 -4.039 -0.85799998
-3.457 -4.0279999 -0.85600001
-3.46 -4.007 -0.85399997
-3.47 -3.993 -0.85299999
-3.483 -3.9820001 -0.85299999
-2.4059999 -3.8970001 -0.86000001
-2.391 -3.9000001 -0.85799998
-2.4130001 -3.881 -0.85799998
-2.4200001 -3.8659999 -0.85500002
-2.4289999 -3.8529999 -0.85399997
-2.4389999 -3.842 -0.85299999
-2.4460001 -3.8380001 -0.85299999
-2.4579999 -3.8299999 -0.85299999
-2.4649999 -3.816 -0.852
-2.677 -3.6830001 -0.85399997
-2.441 -3.6730001 -0.85900003
-2.464 -3.6570001 -0.85900003
-2.447 -3.6570001 -0.85699999
-2.4660001 -3.6470001 -0.85799998
-2.503 -3.6289999 -0.85900003
-2.4860001 -3.628 -0.85699999
-2.471 -3.6300001 -0.85500002
-2.812 -3.576 -0.85299999
-3.6949999 -3.471 -0.85699999
-3.6730001 -3.4719999 -0.85399997
-3.7060001 -3.46 -0.85699999
-3.717 -3.448 -0.85699999
-2.7049999 -3.4489999 -0.85299999
-2.7279999 -3.4330001 -0.85399997
-1.558 -3.421 -0.85699999
-1.582 -3.4030001 -0.85500002
-3.3670001 -3.3970001 -0.85799998
-1.59 -3.3929999 -0.85399997
-1.612 -3.385 -0.85399997
-1.601 -3.388 -0.85399997
-1.6799999 -3.375 -0.86000001
-1.645 -3.3710001 -0.85500002
-1.635 -3.378 -0.85500002
-1.619 -3.3710001 -0.852
-1.688 -3.365 -0.85900003
-1.651 -3.3699999 -0.85500002
-1.712 -3.359 -0.86000001
-2.553 -3.348 -0.852
-2.3789999 -3.8410001 -0.67699999
-2.395 -3.8399999 -0.67799997
-2.401 -3.823 -0.676
-2.402 -3.8110001 -0.67400002
-2.4170001 -3.8080001 -0.67500001
-2.46 -3.7969999 -0.67799997
-2.4330001 -3.7809999 -0.67299998
-2.421 -3.789 -0.67299998
-2.4530001 -3.7590001 -0.671
-2.471 -3.7490001 -0.67199999
-2.527 -3.7309999 -0.67500001
-2.516 -3.74 -0.67500001
-2.48 -3.7360001 -0.671
-2.5339999 -3.7160001 -0.67299998
-2.6289999 -3.655 -0.67400002
-2.6889999 -3.6159999 -0.67500001
-3.665 -3.4909999 -0.67799997
-3.641 -3.49 -0.67500001
-3.279 -3.473 -0.68000001
-2.625 -3.4760001 -0.68000001
-2.6159999 -3.4749999 -0.67900002
-1.75 -3.4560001 -0.671
-1.855 -3.4330001 -0.67699999
-1.8710001 -3.424 -0.67699999
-1.8559999 -3.421 -0.67500001
-2.7409999 -3.5699999 -0.49200001
-3.3399999 -3.5510001 -0.49200001
-2.756 -3.5539999 -0.491
-3.381 -3.549 -0.49599999
-3.3829999 -3.54 -0.495
-3.3469999 -3.536 -0.491
-3.2479999 -3.4920001 -0.498
-3.45 -4.2589998 -0.84799999
-3.4579999 -4.2420001 -0.84600002
-3.484 -3.9579999 -0.85000002
-3.4879999 -3.938 -0.847
-3.4890001 -3.927 -0.84600002
-3.4920001 -3.905 -0.84299999
-2.47 -3.7969999 -0.84899998
-2.47 -3.7709999 -0.84399998
-2.5769999 -3.727 -0.84899998
-2.55 -3.6989999 -0.84100002
-2.6670001 -3.6440001 -0.84600002
-2.6919999 -3.631 -0.847
-3.4549999 -3.6229999 -0.84500003
-2.674 -3.6300001 -0.84399998
-3.4690001 -3.615 -0.84600002
-3.4619999 -3.596 -0.84200001
-3.48 -3.5699999 -0.84100002
-3.5409999 -3.5309999 -0.84399998
-3.53 -3.5309999 -0.84200001
-3.5580001 -3.526 -0.84500003
-3.6459999 -3.4690001 -0.85000002
-3.6064999 -3.4580002 -0.84299999
-2.638 -3.451 -0.84500003
-2.677 -3.4360001 -0.847
-2.7049999 -3.4260001 -0.84899998
-2.6659999 -3.8239999 -0.66100001
-2.454 -3.7490001 -0.67000002
-2.4879999 -3.724 -0.67000002
-2.6040001 -3.595 -0.66299999
-2.6440001 -3.5780001 -0.66399997
-2.6270001 -3.579 -0.66299999
-2.6099999 -3.579 -0.66100001
-3.6059999 -3.4779999 -0.67000002
-3.5940001 -3.477 -0.66799998
-3.566 -3.4719999 -0.66500002
-3.5420001 -3.47 -0.662
-1.7589999 -3.447 -0.67000002
-1.765 -3.4330001 -0.66799998
-1.808 -3.4219999 -0.67000002
-1.794 -3.4230001 -0.66900003
-1.771 -3.4300001 -0.66799998
-1.829 -3.411 -0.67000002
-1.818 -3.415 -0.67000002
-1.778 -3.418 -0.667
-3.549 -3.602 -0.48300001
-2.6860001 -3.5669999 -0.486
-3.23 -3.5550001 -0.48199999
-2.6919999 -3.552 -0.48500001
-2.658 -3.553 -0.48199999
-2.6459999 -3.5599999 -0.48199999
-3.2739999 -3.5469999 -0.48500001
-2.744 -3.55 -0.49000001
-2.707 -3.5480001 -0.486
-3.2739999 -3.5250001 -0.48300001
-3.4430001 -4.1960001 -0.838
-3.4419999 -4.1690001 -0.83399999
-3.4779999 -3.865 -0.83600003
-3.49 -3.8540001 -0.83600003
-3.4879999 -3.8269999 -0.83200002
-2.46 -3.7290001 -0.83499998
-2.4619999 -3.72 -0.83399999
-2.4719999 -3.7090001 -0.833
-2.527 -3.691 -0.83700001
-2.48 -3.6960001 -0.83200002
-2.49 -3.6849999 -0.83099997
-2.5020001 -3.6789999 -0.83200002
-3.4630001 -3.575 -0.83899999
-3.477 -3.5450001 -0.83700001
-3.5109999 -3.5339999 -0.83999997
-3.4790001 -3.5239999 -0.83399999
-3.5639999 -3.4660001 -0.838
-3.5810001 -3.46 -0.83999997
-2.586 -3.4389999 -0.83600003
-2.645 -3.4159999 -0.83899999
-2.6289999 -3.4189999 -0.838
-2.5999999 -3.414 -0.833
-3.2290001 -3.395 -0.838
-1.801 -3.204 -0.83499998
-1.802 -3.1949999 -0.833
-1.7819999 -3.1949999 -0.83099997
-1.849 -3.161 -0.83200002
-1.84 -3.168 -0.83200002
-2.652 -3.829 -0.66000003
-2.671 -3.8180001 -0.66000003
-2.6670001 -3.7869999 -0.65600002
-2.6760001 -3.776 -0.65499997
-2.6800001 -3.756 -0.653
-2.641 -3.539 -0.65899998
-3.4909999 -3.4849999 -0.65799999
-3.454 -3.4809999 -0.653
-3.5020001 -3.474 -0.65799999
-2.72 -3.471 -0.65700001
-3.517 -3.4679999 -0.65899998
-2.698 -3.4660001 -0.65399998
-2.6849999 -3.461 -0.65200001
-3.5009999 -3.575 -0.47600001
-3.533 -3.563 -0.47799999
-3.4790001 -3.5639999 -0.47299999
-3.1070001 -3.5639999 -0.47099999
-2.9560001 -3.5610001 -0.47799999
-2.572 -3.5650001 -0.47600001
-2.552 -3.562 -0.47400001
-2.5350001 -3.562 -0.472
-3.2049999 -3.5510001 -0.479
-3.1659999 -3.552 -0.47499999
-3.1170001 -3.553 -0.47099999
-2.967 -3.552 -0.47799999
-2.904 -3.5550001 -0.472
-2.631 -3.552 -0.479
-2.6170001 -3.5569999 -0.479
-2.595 -3.5510001 -0.47600001
-2.5840001 -3.559 -0.47600001
-2.5250001 -3.5599999 -0.47099999
-3.1789999 -3.5450001 -0.47600001
-3.1229999 -3.549 -0.47099999
-2.9260001 -3.5480001 -0.47400001
-2.9130001 -3.543 -0.472
-3.223 -3.526 -0.47799999
-2.987 -3.53 -0.477
-2.9660001 -3.527 -0.47499999
-3.4330001 -4.131 -0.82800001
-3.4430001 -4.1170001 -0.82700002
-3.4289999 -4.0869999 -0.82200003
-3.4879999 -3.803 -0.829
-2.6500001 -3.7950001 -0.82599998
-3.494 -3.7869999 -0.82700002
-2.654 -3.7750001 -0.82300001
-3.4890001 -3.77 -0.82499999
-3.4990001 -3.733 -0.82099998
-3.3710001 -3.579 -0.82700002
-1.651 -3.5710001 -0.82099998
-1.622 -3.4159999 -0.824
-1.66 -3.4000001 -0.82499999
-1.74 -3.3859999 -0.82999998
-1.704 -3.382 -0.82499999
-1.72 -3.3740001 -0.82499999
-1.709 -3.378 -0.82499999
-1.686 -3.372 -0.82099998
-1.816 -3.1730001 -0.82999998
-1.822 -3.161 -0.82800001
-1.794 -3.1589999 -0.824
-2.4059999 -3.8770001 -0.64399999
-2.411 -3.8599999 -0.64200002
-2.605 -3.7869999 -0.64999998
-2.6760001 -3.7249999 -0.648
-2.668 -3.6900001 -0.64300001
-2.6719999 -3.6719999 -0.64099997
-2.6930001 -3.664 -0.64200002
-2.678 -3.668 -0.64099997
-1.83 -3.5120001 -0.64200002
-1.931 -3.503 -0.64999998
-1.902 -3.503 -0.64700001
-2.6240001 -3.493 -0.64999998
-1.942 -3.497 -0.64999998
-1.914 -3.4979999 -0.648
-1.8710001 -3.497 -0.64300001
-3.4260001 -3.474 -0.64899999
-2.6530001 -3.4630001 -0.64899999
-2.6240001 -3.47 -0.64700001
-2.632 -3.4590001 -0.64600003
-2.6600001 -3.45 -0.648
-2.3929999 -3.572 -0.461
-2.493 -3.5610001 -0.46799999
-2.4630001 -3.5669999 -0.46599999
-2.4425001 -3.5664999 -0.46450001
-3.0810001 -3.5569999 -0.46799999
-3.0610001 -3.5569999 -0.46599999
-3.043 -3.559 -0.465
-3.0170002 -3.556 -0.46200001
-2.846 -3.5510001 -0.46700001
-2.829 -3.553 -0.465
-2.8050001 -3.556 -0.463
-2.507 -3.5580001 -0.46900001
-2.473 -3.5569999 -0.46599999
-2.414 -3.5550001 -0.461
-2.8599999 -3.546 -0.46700001
-2.8039999 -3.5439999 -0.46200001
-3.1289999 -3.5339999 -0.47
-2.8659999 -3.53 -0.46599999
-3.473 -4.388 -0.81800002
-3.4879999 -4.3790002 -0.81900001
-3.4790001 -4.3400002 -0.81300002
-3.4319999 -4.0640001 -0.81900001
-3.447 -4.0560002 -0.81999999
-3.4349999 -4.0149999 -0.81300002
-3.4590001 -3.9920001 -0.81199998
-3.4419999 -3.9990001 -0.81099999
-2.418 -3.8889999 -0.81599998
-2.424 -3.872 -0.81400001
-2.3989999 -3.8729999 -0.81099999
-2.4560001 -3.8699999 -0.81699997
-2.4360001 -3.8640001 -0.81400001
-2.4560001 -3.842 -0.81199998
-2.6589999 -3.7449999 -0.81900001
-2.6429999 -3.747 -0.81699997
-3.484 -3.74 -0.81999999
-2.6530001 -3.7119999 -0.81199998
-3.5209999 -3.664 -0.81400001
-3.5020001 -3.6659999 -0.81199998
-1.656 -3.5239999 -0.81099999
-2.615 -3.4909999 -0.81300002
-2.6570001 -3.4779999 -0.81599998
-3.753 -3.464 -0.81900001
-3.743 -3.4660001 -0.81800002
-2.6989999 -3.4649999 -0.81900001
-2.6819999 -3.4660001 -0.81699997
-2.7019999 -3.4579999 -0.81900001
-1.627 -3.3934999 -0.81949997
-1.663 -3.3789999 -0.81999999
-1.636 -3.3770001 -0.81699997
-1.6720001 -3.3699999 -0.81900001
-2.4130001 -3.836 -0.639
-2.4330001 -3.8139999 -0.63800001
-2.415 -3.813 -0.63599998
-2.447 -3.7969999 -0.63700002
-2.4389999 -3.7980001 -0.63599998
-2.4530001 -3.78 -0.63499999
-2.5450001 -3.7509999 -0.639
-2.4849999 -3.7509999 -0.634
-2.4690001 -3.753 -0.63200003
-2.457 -3.76 -0.63200003
-2.526 -3.7479999 -0.63700002
-2.5139999 -3.744 -0.63499999
-2.5550001 -3.74 -0.639
-2.4920001 -3.737 -0.63200003
-2.694 -3.641 -0.639
-3.2639999 -3.513 -0.63599998
-3.2839999 -3.4909999 -0.63599998
-1.845 -3.487 -0.639
-1.83 -3.4860001 -0.63800001
-1.853 -3.4760001 -0.63800001
-1.87 -3.4690001 -0.639
-3.369 -3.3840001 -0.63300002
-2.029 -3.763 -0.45699999
-2.007 -3.7520001 -0.454
-2.02 -3.721 -0.45100001
-2.2539999 -3.5929999 -0.45199999
-2.2780001 -3.5810001 -0.45199999
-2.2650001 -3.586 -0.45199999
-2.9489999 -3.573 -0.458
-2.345 -3.573 -0.45699999
-2.3380001 -3.575 -0.45699999
-2.9260001 -3.5669999 -0.45500001
-2.757 -3.5639999 -0.46000001
-2.737 -3.5610001 -0.458
-2.7049999 -3.566 -0.456
-2.661 -3.5650001 -0.45199999
-2.3710001 -3.5650001 -0.458
-2.355 -3.5639999 -0.45699999
-2.316 -3.566 -0.454
-2.302 -3.5699999 -0.45300001
-2.9949999 -3.5580001 -0.46000001
-2.9719999 -3.5539999 -0.458
-2.957 -3.559 -0.45699999
-2.688 -3.5539999 -0.45300001
-2.78 -3.5480001 -0.46000001
-2.7639999 -3.55 -0.45899999
-2.392 -3.546 -0.458
-2.6989999 -3.5339999 -0.45100001
-3.484 -4.3189998 -0.81
-3.483 -4.29 -0.80599999
-3.49 -4.2709999 -0.80500001
-3.4890001 -4.243 -0.801
-3.454 -3.9619999 -0.80800003
-3.4579999 -3.954 -0.80699998
-3.47 -3.9430001 -0.80699998
-3.4630001 -3.9100001 -0.80199999
-2.575 -3.7130001 -0.80400002
-2.6559999 -3.6919999 -0.81
-2.652 -3.6619999 -0.80400002
-2.658 -3.6470001 -0.80199999
-3.5020001 -3.6329999 -0.80800003
-3.493 -3.6010001 -0.80199999
-3.556 -3.5409999 -0.80299997
-3.563 -3.526 -0.80199999
-3.3039999 -3.4849999 -0.80500001
-2.612 -3.4630001 -0.80800003
-3.6860001 -3.4579999 -0.80900002
-3.6600001 -3.454 -0.80500001
-3.6370001 -3.4549999 -0.80199999
-2.625 -3.4579999 -0.80800003
-3.701 -3.45 -0.81
-2.651 -3.448 -0.81
-1.758 -3.4419999 -0.80400002
-1.7309999 -3.4419999 -0.801
-1.7410001 -3.4349999 -0.801
-1.809 -3.4219999 -0.80599999
-1.785 -3.428 -0.80400002
-1.757 -3.427 -0.801
-1.8150001 -3.4070001 -0.80299997
-2.5280001 -3.3410001 -0.81
-2.767 -3.516 -0.62900001
-3.247 -3.4719999 -0.62900001
-1.992 -3.9530001 -0.44800001
-2.0050001 -3.947 -0.44800001
-2.006 -3.9030001 -0.44299999
-1.993 -3.892 -0.44100001
-2.0380001 -3.8740001 -0.44100001
-2.033 -3.7030001 -0.449
-2.029 -3.7090001 -0.44999999
-2.0580001 -3.6930001 -0.44999999
-2.069 -3.6849999 -0.44999999
-2.039 -3.6860001 -0.44800001
-2.0739999 -3.668 -0.44800001
-2.092 -3.658 -0.44800001
-2.0769999 -3.6459999 -0.44499999
-2.0940001 -3.6359999 -0.44499999
-2.1619999 -3.622 -0.44800001
-2.118 -3.625 -0.44499999
-2.092 -3.6059999 -0.44100001
-2.187 -3.598 -0.447
-2.1530001 -3.5929999 -0.44400001
-2.132 -3.596 -0.44299999
-2.1170001 -3.598 -0.442
-2.513 -3.5840001 -0.44100001
-2.523 -3.5739999 -0.44100001
-2.191 -3.579 -0.44499999
-2.1559999 -3.573 -0.442
-2.625 -3.5639999 -0.44800001
-2.5810001 -3.562 -0.44400001
-2.549 -3.563 -0.442
-2.2309999 -3.5680001 -0.447
-2.2130001 -3.5650001 -0.44499999
-2.2 -3.569 -0.44499999
-2.8940001 -3.5510001 -0.44999999
-2.812 -3.552 -0.44299999
-2.7939999 -3.553 -0.442
-2.638 -3.5569999 -0.449
-2.6029999 -3.556 -0.44600001
-2.5610001 -3.5569999 -0.442
-2.2780001 -3.5569999 -0.449
-2.589 -3.549 -0.44400001
-2.6570001 -3.536 -0.44800001
-3.8 -4.421 -0.80000001
-3.7520001 -4.3920002 -0.792
-3.483 -4.223 -0.79799998
-3.48 -4.1919999 -0.79400003
-3.487 -4.1739998 -0.792
-3.464 -3.885 -0.79900002
-3.48 -3.8789999 -0.80000001
-3.4630001 -3.836 -0.792
-2.7950001 -3.8329999 -0.79400003
-2.424 -3.7550001 -0.79400003
-2.4519999 -3.747 -0.79500002
-2.4349999 -3.7460001 -0.79299998
-2.461 -3.734 -0.79400003
-3.431 -3.638 -0.79900002
-2.658 -3.6110001 -0.796
-2.6500001 -3.612 -0.796
-2.655 -3.5840001 -0.792
-3.4820001 -3.5669999 -0.79699999
-3.506 -3.5469999 -0.79699999
-3.487 -3.549 -0.79500002
-3.533 -3.54 -0.79900002
-3.507 -3.526 -0.79400003
-3.553 -3.494 -0.796
-3.6010001 -3.464 -0.79900002
-3.586 -3.461 -0.796
-3.5480001 -3.4679999 -0.792
-1.696 -3.4530001 -0.80000001
-3.609 -3.45 -0.79799998
-1.7180001 -3.444 -0.80000001
-1.7079999 -3.45 -0.80000001
-1.658 -3.444 -0.79400003
-1.668 -3.4389999 -0.79400003
-1.669 -3.425 -0.79100001
-1.767 -3.4200001 -0.80000001
-1.786 -3.405 -0.79900002
-1.813 -3.391 -0.79900002
-2.6589999 -3.8510001 -0.61799997
-2.651 -3.826 -0.61400002
-2.6530001 -3.803 -0.611
-2.622 -3.5 -0.61199999
-1.952 -3.4909999 -0.61400002
-2.711 -3.49 -0.62
-2.6689999 -3.4820001 -0.61500001
-1.962 -3.484 -0.61400002
-2.7130001 -3.471 -0.61799997
-2.6830001 -3.477 -0.61500001
-1.937 -3.477 -0.611
-1.992 -3.9820001 -0.43200001
-2.0079999 -3.8759999 -0.43900001
-2.0150001 -3.8610001 -0.43799999
-2.0480001 -3.835 -0.43700001
-2.049 -3.823 -0.435
-2.0209999 -3.813 -0.43200001
-2.1029999 -3.8069999 -0.43700001
-2.0710001 -3.8050001 -0.435
-2.1099999 -3.7920001 -0.43599999
-2.0810001 -3.7950001 -0.43399999
-2.0510001 -3.7969999 -0.43200001
-2.1240001 -3.7750001 -0.435
-2.109 -3.7609999 -0.43200001
-2.1440001 -3.7550001 -0.433
-2.151 -3.7390001 -0.43200001
-2.211 -3.7219999 -0.43399999
-2.1730001 -3.724 -0.43200001
-3.5450001 -3.714 -0.43099999
-2.187 -3.72 -0.43200001
-3.562 -3.7090001 -0.43200001
-2.2149999 -3.701 -0.43200001
-2.224 -3.6889999 -0.43099999
-2.2739999 -3.654 -0.43099999
-2.2850001 -3.6470001 -0.43099999
-2.352 -3.6140001 -0.43200001
-2.411 -3.605 -0.435
-2.4419999 -3.5899999 -0.43599999
-2.4059999 -3.585 -0.433
-2.382 -3.585 -0.43099999
-2.4960001 -3.572 -0.43799999
-2.484 -3.579 -0.43799999
-2.4489999 -3.575 -0.435
-2.756 -3.562 -0.43900001
-2.7190001 -3.5610001 -0.43599999
-2.7079999 -3.569 -0.43599999
-2.687 -3.5650001 -0.43399999
-2.6655002 -3.5650001 -0.43200001
-2.4590001 -3.566 -0.435
-2.777 -3.5539999 -0.44
-2.7690001 -3.5550001 -0.44
-2.733 -3.5550001 -0.43700001
-2.526 -3.5550001 -0.43900001
-3.4809999 -4.1399999 -0.787
-3.4809999 -4.1139998 -0.78399998
-3.4890001 -4.0970001 -0.78200001
-3.4630001 -3.823 -0.79000002
-2.6889999 -3.8239999 -0.78100002
-3.4719999 -3.809 -0.79000002
-3.47 -3.7820001 -0.78600001
-3.4690001 -3.7579999 -0.78299999
-3.4790001 -3.744 -0.78200001
-2.405 -3.7379999 -0.78799999
-2.4590001 -3.707 -0.78899997
-2.457 -3.678 -0.78399998
-2.5139999 -3.651 -0.78600001
-2.49 -3.641 -0.78100002
-2.6630001 -3.5710001 -0.79000002
-3.5510001 -3.4489999 -0.79000002
-1.791 -3.325 -0.78299999
-2.404 -3.8840001 -0.60000002
-2.5780001 -3.783 -0.60100001
-2.655 -3.78 -0.60799998
-2.6600001 -3.7620001 -0.60600001
-2.661 -3.7390001 -0.60299999
-2.6630001 -3.7160001 -0.60000002
-2.7179999 -3.6830001 -0.60100001
-2.701 -3.684 -0.60000002
-1.864 -3.5009999 -0.60799998
-1.86 -3.5079999 -0.60900003
-1.8890001 -3.4949999 -0.60900003
-1.872 -3.49 -0.60699999
-2.6199999 -3.4749999 -0.60900003
-1.906 -3.474 -0.60799998
-1.895 -3.48 -0.60799998
-2.6400001 -3.467 -0.61000001
-1.918 -3.47 -0.60799998
-1.989 -3.9619999 -0.42899999
-2.0139999 -3.9489999 -0.42899999
-2.023 -3.937 -0.428
-1.993 -3.9400001 -0.42699999
-2.043 -3.9159999 -0.42699999
-2.017 -3.8959999 -0.42300001
-2.0350001 -3.8710001 -0.421
-2.119 -3.737 -0.42899999
-2.1530001 -3.7149999 -0.42899999
-2.1849999 -3.7030001 -0.43000001
-3.506 -3.697 -0.426
-3.4719999 -3.6830001 -0.42199999
-3.4560001 -3.6889999 -0.421
-2.2390001 -3.6619999 -0.42899999
-2.227 -3.6689999 -0.42899999
-2.26 -3.658 -0.43000001
-2.247 -3.6500001 -0.428
-2.2839999 -3.6199999 -0.42699999
-3.3310001 -3.5929999 -0.428
-2.316 -3.595 -0.426
-2.303 -3.5999999 -0.426
-2.286 -3.5969999 -0.42399999
-3.3069999 -3.589 -0.42500001
-2.5610001 -3.582 -0.42500001
-2.513 -3.586 -0.42199999
-2.3670001 -3.5869999 -0.43000001
-2.3510001 -3.5880001 -0.428
-3.3540001 -3.572 -0.428
-2.6159999 -3.5739999 -0.42899999
-2.5999999 -3.576 -0.428
-2.582 -3.576 -0.426
-2.312 -3.576 -0.42399999
-2.6429999 -3.5639999 -0.43000001
-2.5580001 -3.5669999 -0.42300001
-2.4070001 -3.563 -0.43000001
-3.3740001 -3.559 -0.428
-2.618 -3.5550001 -0.42699999
-3.3499999 -3.5450001 -0.42500001
-3.3110001 -3.549 -0.42199999
-3.3929999 -3.5350001 -0.428
-3.3710001 -3.5339999 -0.426
-3.4909999 -4.0739999 -0.77999997
-3.4849999 -4.0539999 -0.77600002
-3.494 -4.0380001 -0.77499998
-3.503 -4.0229998 -0.77399999
-3.503 -3.9990001 -0.77100003
-2.7539999 -3.7509999 -0.77700001
-2.763 -3.7390001 -0.77600002
-3.47 -3.7119999 -0.77700001
-3.4920001 -3.6530001 -0.77200001
-3.4760001 -3.6600001 -0.77100003
-2.4560001 -3.652 -0.77899998
-2.461 -3.6470001 -0.77899998
-2.471 -3.6370001 -0.77899998
-2.6359999 -3.5120001 -0.77700001
-3.723 -3.467 -0.778
-3.6919999 -3.46 -0.773
-1.734 -3.4560001 -0.773
-1.7640001 -3.434 -0.77100003
-1.798 -3.421 -0.77200001
-1.788 -3.427 -0.77200001
-1.775 -3.4289999 -0.77100003
-1.817 -3.418 -0.77399999
-1.804 -3.418 -0.77200001
-1.806 -3.3039999 -0.77999997
-1.791 -3.3010001 -0.778
-1.823 -3.286 -0.778
-1.812 -3.29 -0.778
-1.83 -3.273 -0.77700001
-1.858 -3.2639999 -0.778
-1.829 -3.26 -0.77399999
-1.8329999 -3.243 -0.77100003
-2.3989999 -3.822 -0.59100002
-2.3859999 -3.8280001 -0.59100002
-2.411 -3.8139999 -0.59100002
-2.549 -3.766 -0.597
-2.513 -3.7620001 -0.59299999
-2.4949999 -3.7620001 -0.59100002
-2.5220001 -3.7509999 -0.59200001
-2.6630001 -3.704 -0.59899998
-2.6700001 -3.6889999 -0.59799999
-2.677 -3.674 -0.59600002
-2.572 -3.3900001 -0.59200001
-2.0350001 -3.8559999 -0.419
-2.0380001 -3.8340001 -0.41600001
-2.062 -3.8210001 -0.41600001
-2.0439999 -3.8150001 -0.414
-2.0699999 -3.8050001 -0.41499999
-2.0810001 -3.7969999 -0.41499999
-2.0969999 -3.786 -0.414
-2.152 -3.7709999 -0.41600001
-2.1359999 -3.7709999 -0.41499999
-2.1229999 -3.776 -0.41499999
-2.109 -3.779 -0.414
-2.164 -3.7639999 -0.41600001
-2.0810001 -3.77 -0.41100001
-3.2820001 -3.756 -0.41299999
-2.2119999 -3.7249999 -0.41499999
-2.1989999 -3.73 -0.41499999
-2.1630001 -3.723 -0.41100001
-2.2360001 -3.7119999 -0.41499999
-2.2219999 -3.7160001 -0.41499999
-3.395 -3.7049999 -0.41800001
-3.425 -3.691 -0.419
-3.368 -3.698 -0.41499999
-3.3440001 -3.6949999 -0.41299999
-2.2820001 -3.6960001 -0.417
-2.233 -3.6949999 -0.41299999
-3.402 -3.6889999 -0.417
-3.431 -3.674 -0.41800001
-2.25 -3.671 -0.41100001
-2.28 -3.6670001 -0.41299999
-2.313 -3.6559999 -0.414
-2.3069999 -3.6589999 -0.414
-2.289 -3.6570001 -0.412
-2.3540001 -3.6440001 -0.41600001
-2.3399999 -3.648 -0.41499999
-2.3210001 -3.6429999 -0.41299999
-2.3889999 -3.6229999 -0.41600001
-2.359 -3.6259999 -0.414
-2.4200001 -3.6070001 -0.417
-2.402 -3.605 -0.41499999
-2.388 -3.609 -0.414
-2.4820001 -3.589 -0.419
-2.4560001 -3.5880001 -0.417
-2.437 -3.5840001 -0.41499999
-2.4219999 -3.5869999 -0.414
-2.49 -3.576 -0.419
-2.457 -3.5769999 -0.41600001
-2.527 -3.5580001 -0.419
-2.5079999 -3.556 -0.41800001
-16.502001 -7.9460001 0.82800001
-16.509001 -7.8860002 0.82800001
-16.514 -7.8249998 0.82700002
-16.49 -7.7810001 0.82599998
-16.490999 -7.7189999 0.82499999
-16.486 -7.6529999 0.824
-16.485001 -7.5900002 0.82300001
-16.479 -7.5240002 0.82200003
-16.478001 -7.461 0.82099998
-16.466 -7.4250002 0.81999999
-16.483 -7.3699999 0.81999999
-21.245001 -6.684 0.82099998
-21.462999 -6.678 0.82599998
-20.091 -6.6900001 -0.23899999
-19.671 -6.6890001 -0.23100001
-15.658 -7.1129999 -0.76899999
-15.708 -7.0170002 -0.76999998
-15.739 -6.9720001 -0.76999998
-18.211 -6.671 -0.76999998
-18.048 -6.6750002 -0.76300001
-20.775 -6.6529999 -0.76700002
-22.458 -6.6739998 1.001
-16.183001 -7.5650001 0.479
-16.183001 -7.5040002 0.479
-16.158001 -7.4619999 0.47799999
-16.156 -7.3990002 0.47799999
-16.159 -7.3390002 0.47799999
-16.155001 -7.276 0.477
-16.157 -7.2160001 0.477
-16.143 -7.1500001 0.47600001
-16.155001 -7.0939999 0.47600001
-16.148001 -7.0609999 0.47600001
-15.927 -8.9860001 -0.050999999
-15.974 -8.9460001 -0.050999999
-17.089001 -7.2690001 -0.055
-17.215 -7.2589998 -0.056000002
-17.216999 -7.1960001 -0.056000002
-17.181999 -7.1500001 -0.055
-17.379999 -6.914 -0.057
-17.148001 -6.8839998 -0.052999999
-17.4 -6.8590002 -0.057
-17.375 -6.8169999 -0.056000002
-17.393 -6.7610002 -0.056000002
-17.440001 -6.717 -0.056000002
-17.575001 -6.7049999 -0.057999998
-17.715 -6.6960001 -0.059999999
-15.724 -8.4040003 -0.58899999
-15.729 -8.3430004 -0.588
-15.682 -8.2869997 -0.58499998
-15.715 -8.2410002 -0.58600003
-15.702 -8.1709995 -0.58399999
-15.718 -8.1169996 -0.583
-15.706 -8.0489998 -0.58099997
-15.721 -7.994 -0.58099997
-16.4 -6.8379998 -0.58700001
-19.305 -6.6880002 -0.58399999
-19.476999 -6.6789999 -0.58999997
-15.735 -8.5349998 -1.118
-15.726 -8.4659996 -1.115
-15.728 -8.4040003 -1.113
-16.464001 -6.862 -1.113
-16.572001 -6.8460002 -1.12
-17.937 -6.6929998 -1.115
-18.462999 -6.7270002 0.65600002
-18.309999 -6.704 0.65200001
-15.961 -9.1210003 -0.935
-17.849001 -6.7049999 -0.40599999
-17.993999 -6.6950002 -0.41
-17.709 -6.6849999 -0.40099999
-22.302999 -6.6760001 -0.40200001
-22.538 -6.6700001 -0.40799999
-17.028999 -6.8509998 -0.93300003
-18.951 -6.6659999 -0.93300003
-16.495001 -8.625 0.83899999
-16.503 -8.5629997 0.838
-16.513 -8.5030003 0.83700001
-16.51 -8.4350004 0.83600003
-16.511 -8.3710003 0.83499998
-16.514 -8.3070002 0.83399999
-16.507999 -8.2390003 0.833
-16.511999 -8.2080002 0.833
-16.506001 -8.1409998 0.83099997
-16.506001 -8.0760002 0.82999998
-16.51 -8.0139999 0.82999998
-21.695999 -6.6760001 0.83200002
-21.912001 -6.6669998 0.838
-19.504 -6.7010002 -0.227
-19.320999 -6.7059999 -0.22400001
-17.892 -6.6820002 -0.75599998
-20.577 -6.6609998 -0.75800002
-16.181 -8.875 0.48800001
-16.201 -8.8199997 0.48800001
-16.188999 -8.7480001 0.48800001
-16.198999 -8.6870003 0.48699999
-16.181 -8.6450005 0.48699999
-16.187 -8.5830002 0.486
-16.200001 -8.5249996 0.486
-16.201 -8.4610004 0.486
-16.207001 -8.3990002 0.48500001
-16.212 -8.3369999 0.48500001
-16.209 -8.2709999 0.48500001
-16.195 -8.2320004 0.484
-16.205 -8.1730003 0.484
-16.202 -8.1079998 0.48300001
-16.195 -8.0410004 0.48300001
-16.202 -7.9819999 0.48199999
-16.197001 -7.9159999 0.48199999
-16.205 -7.8569999 0.48199999
-16.193001 -7.8189998 0.48100001
-16.191999 -7.756 0.48100001
-16.181999 -7.6890001 0.47999999
-16.188 -7.6300001 0.47999999
-16.764999 -7.1929998 -0.050000001
-16.15 -6.9879999 -0.041000001
-15.712 -7.928 -0.579
-15.698 -7.8899999 -0.57800001
-15.708 -7.8330002 -0.57700002
-15.709 -7.7719998 -0.57599998
-15.703 -7.7080002 -0.574
-15.72 -7.6550002 -0.574
-15.715 -7.592 -0.57300001
-15.719 -7.533 -0.57200003
-15.715 -7.5 -0.57099998
-16.004 -6.8509998 -0.57099998
-16.073 -6.8210001 -0.57300001
-16.191999 -6.8109999 -0.57800001
-19.122999 -6.6919999 -0.57700002
-15.713 -8.3640003 -1.11
-15.738 -8.3140001 -1.11
-15.767 -8.2659998 -1.11
-15.777 -8.2080002 -1.109
-15.706 -8.1079998 -1.101
-15.736 -8.0620003 -1.101
-16.341 -6.8709998 -1.105
-17.778 -6.698 -1.105
-18.636999 -6.724 0.66000003
-18.971001 -6.711 0.667
-18.797001 -6.7160001 0.66299999
-17.474001 -6.9120002 -0.39700001
-17.327 -6.9169998 -0.39300001
-17.395 -6.8179998 -0.39399999
-17.400999 -6.757 -0.39300001
-17.433001 -6.7069998 -0.39300001
-22.080999 -6.6849999 -0.39700001
-21.84 -6.6869998 -0.391
-17.542 -6.6849999 -0.396
-16.917999 -6.8369999 -0.926
-18.789 -6.6760001 -0.92400002
-16.421 -8.8839998 0.83999997
-16.503 -8.8610001 0.84299999
-16.514999 -8.8009996 0.84200001
-16.511999 -8.7329998 0.84100002
-16.51 -8.6660004 0.83999997
-17.392 -7.3559999 0.84799999
-17.41 -7.2989998 0.847
-17.389999 -7.2259998 0.84600002
-17.410999 -7.171 0.84600002
-17.396 -7.1009998 0.84399998
-17.415001 -7.0450001 0.84399998
-17.385 -7.0009999 0.84299999
-17.399 -6.9429998 0.84299999
-17.382 -6.8730001 0.84100002
-17.385 -6.8109999 0.84100002
-17.396999 -6.7529998 0.83999997
-17.454 -6.7119999 0.84100002
-17.605 -6.7069998 0.84600002
-22.136 -6.6589999 0.84399998
-19.128 -6.7059999 -0.22
-18.798 -6.691 -0.213
-18.968 -6.684 -0.21699999
-17.583 -6.6919999 -0.741
-17.731001 -6.6849999 -0.74800003
-20.188 -6.6760001 -0.74199998
-20.382 -6.6690001 -0.75
-17.414 -7.5469999 0.49599999
-17.381001 -7.4679999 0.495
-17.393 -7.4089999 0.495
-17.406 -7.349 0.495
-17.403 -7.2839999 0.495
-17.4 -7.2189999 0.49399999
-17.381001 -7.1789999 0.49399999
-17.378 -7.1139998 0.493
-17.386999 -7.0539999 0.493
-17.385 -6.9899998 0.493
-17.386999 -6.927 0.49200001
-17.378 -6.8610001 0.49200001
-17.375999 -6.796 0.49200001
-17.382999 -6.7680001 0.491
-17.426001 -6.7220001 0.49200001
-17.715 -6.7049999 0.49599999
-17.544001 -6.704 0.493
-17.867001 -6.698 0.498
-15.9 -6.9390001 -0.037999999
-15.718 -7.4419999 -0.56999999
-15.678 -7.3629999 -0.56699997
-15.725 -7.3239999 -0.56800002
-15.741 -7.2709999 -0.56800002
-15.738 -7.21 -0.56599998
-15.757 -7.1589999 -0.56599998
-15.746 -7.125 -0.565
-15.748 -7.066 -0.56400001
-15.77 -7.0170002 -0.56400001
-15.836 -6.927 -0.565
-15.896 -6.8940001 -0.56699997
-15.966 -6.8639998 -0.56900001
-18.774 -6.7020001 -0.565
-18.937 -6.6929998 -0.56999999
-15.683 -7.941 -1.094
-15.714 -7.895 -1.094
-15.738 -7.783 -1.092
-17.589001 -6.9120002 -1.098
-16.224001 -6.882 -1.097
-17.624001 -6.7030001 -1.095
-19.160999 -6.711 0.671
-19.496 -6.691 0.67799997
-19.318001 -6.698 0.67400002
-16.07 -8.927 -0.384
-15.716 -8.9139996 -0.91500002
-15.728 -8.8559999 -0.91399997
-21.427999 -6.671 -0.38100001
-21.646 -6.665 -0.38600001
-16.653999 -6.8520002 -0.91100001
-16.778999 -6.842 -0.91799998
-18.614 -6.6799998 -0.91500002
-17.740999 -6.7270002 0.85100001
-17.893 -6.7199998 0.85500002
-22.364 -6.651 0.85000002
-18.474001 -6.7069998 -0.207
-18.291 -6.7059999 -0.20299999
-18.629999 -6.697 -0.20999999
-17.372999 -6.8309999 -0.73400003
-17.382999 -6.7719998 -0.73299998
-17.399 -6.7160001 -0.73299998
-17.450001 -6.704 -0.73500001
-19.993999 -6.6820002 -0.73400003
-18.497999 -6.7030001 0.50700003
-18.323 -6.7049999 0.505
-18.023001 -6.6919999 0.5
-18.187 -6.6880002 0.50199997
-18.627001 -6.6820002 -0.55900002
-18.451 -6.6849999 -0.55299997
-22.653999 -6.6440001 -0.551
-15.619 -7.9400001 -1.09
-15.732 -7.7189999 -1.09
-15.711 -7.6469998 -1.086
-15.741 -7.6009998 -1.087
-15.736 -7.5679998 -1.085
-15.742 -7.5100002 -1.084
-15.751 -7.454 -1.0829999
-15.996 -6.9029999 -1.082
-16.113001 -6.8940001 -1.09
-17.381001 -6.7680001 -1.081
-17.412001 -6.717 -1.082
-17.469 -6.7080002 -1.085
-19.863001 -6.7129998 0.68599999
-19.671 -6.717 0.68199998
-15.832 -8.9919996 -0.37799999
-15.824 -8.9209995 -0.377
-16.737 -7.1129999 -0.37799999
-16.648001 -7.0440001 -0.37400001
-16.825001 -6.9949999 -0.37900001
-16.653999 -6.9850001 -0.37400001
-15.702 -8.776 -0.91000003
-21.195999 -6.6719999 -0.375
-15.724 -8.724 -0.91000003
-15.701 -8.6470003 -0.90600002
-15.695 -8.6110001 -0.90499997
-15.692 -8.5459995 -0.903
-15.701 -8.4870005 -0.90100002
-16.538 -6.8649998 -0.90499997
-18.448 -6.6859999 -0.90700001
-18.051001 -6.7150002 0.86000001
-18.205 -6.7080002 0.86500001
-17.983999 -6.7220001 -0.197
-18.122 -6.7090001 -0.2
-17.833 -6.698 -0.19400001
-17.666 -6.6989999 -0.191
-17.236 -6.8400002 -0.72799999
-19.802999 -6.6880002 -0.72600001
-18.676001 -6.7010002 0.50999999
-19.190001 -6.6810002 0.51700002
-19.006001 -6.6849999 0.514
-18.832001 -6.6900001 0.51200002
-19.362 -6.6729999 0.51899999
-18.292999 -6.6919999 -0.54699999
-18.125999 -6.6960001 -0.54100001
-22.409 -6.6490002 -0.54400003
-15.72 -7.3790002 -1.0779999
-15.733 -7.3239999 -1.077
-15.725 -7.2600002 -1.075
-15.733 -7.204 -1.074
-15.73 -7.1729999 -1.072
-15.747 -7.1209998 -1.072
-15.747 -7.0619998 -1.0700001
-15.777 -7.0149999 -1.071
-15.808 -6.9109998 -1.0700001
-15.848 -6.8990002 -1.072
-17.191999 -6.8189998 -1.0700001
-16.357 -7.1459999 0.699
-16.355 -7.085 0.69800001
-16.351999 -7.0219998 0.69800001
-20.039 -6.7030001 0.69
-20.440001 -6.6950002 0.69800001
-20.242001 -6.6999998 0.69400001
-20.784 -6.6859999 -0.36500001
-20.993999 -6.6799998 -0.37
-15.682 -8.4130001 -0.898
-15.695 -8.3559999 -0.89700001
-15.679 -8.2840004 -0.89399999
-15.681 -8.2539997 -0.89399999
-15.664 -8.1829996 -0.89099997
-16.302 -6.8870001 -0.89200002
-16.426001 -6.8790002 -0.89899999
-18.277 -6.6890001 -0.898
-18.379999 -6.7069998 0.87099999
-18.538 -6.6989999 0.87599999
-17.044001 -7.178 -0.183
-17.037001 -7.112 -0.182
-15.955 -9.0839996 -0.71799999
-17.417999 -6.9510002 -0.18799999
-17.396999 -6.9120002 -0.18700001
-17.402 -6.8499999 -0.18700001
-17.400999 -6.7870002 -0.18700001
-17.406 -6.7259998 -0.186
-17.486 -6.6939998 -0.18799999
-16.958 -6.8530002 -0.71499997
-17.063 -6.8330002 -0.71899998
-19.451 -6.6719999 -0.71100003
-19.627001 -6.6630001 -0.71799999
-19.531 -6.697 0.52200001
-19.895 -6.6820002 0.52700001
-19.712999 -6.6900001 0.52399999
-20.089001 -6.6760001 0.52999997
-17.972 -6.7030001 -0.53500003
-22.191 -6.6599998 -0.537
